950223.16000366,799334,3631.30004883
950224.65000153,799357.54998779,3636.20996094
950225.66000366,799372.35998535,3637.77001953
950227.44999695,799398.7800293,3640.97998047
950230.30999756,799439.84997559,3643.65991211
950242.43999863,799602.42001343,3634.09008789
950220.12000275,799276.98999023,3631.55004883
950220.26000214,799273.75,3622.93994141
950224.76999664,799341.63000488,3632.79003906
950230.87999725,799431.26000977,3642.55004883
950218.69000244,799235.02001953,3616.89990234
950221.47000122,799272.26000977,3616.45996094
950223.26999664,799300.92999268,3623.08007813
950223.94000244,799311.80999756,3625.69995117
950224.73999786,799323.4699707,3626.75
950227.40000153,799365.78997803,3636.09008789
950228.27999878,799378.77001953,3637.7199707
950229.04000092,799389.65997314,3638.58007813
950230.09999847,799404.80999756,3640.02001953
950233.01000214,799445.91998291,3642.73999023
950226,799329.54998779,3627.9699707
950231.54000092,799412.40002441,3640.13989258
950232.06999969,799419.79998779,3640.58007813
950221.12000275,799253.39001465,3625.12011719
950221.61000061,799264.60998535,3631.69995117
950223.52999878,799279.84997559,3617.76000977
950227.90000153,799348.38000488,3631.94995117
950235.12000275,799451.88000488,3642.91992188
950219.87999725,799212.41998291,3600.90991211
950236.20999908,799458.98999023,3644.14990234
950222.02999878,799240.5,3607.2199707
950225.05999756,799288.59002686,3618.87011719
950229.68000031,799360.17999268,3633.47998047
950232.12999725,799395.5,3638.13989258
950220.81999969,799219.04998779,3602.88989258
950222.94999695,799252.5300293,3610.86010742
950223.34999847,799268.46002197,3624.79003906
950228.40000153,799336.61999512,3628.69995117
950234.70999908,799426.7800293,3639.98999023
950231.65000153,799384.13000488,3636.9699707
950235.13999939,799434.95001221,3645.37011719
950227.06999969,799317.91998291,3625.02001953
950221.27999878,799233.34997559,3605.93994141
950222.45999908,799259.40997314,3626.94995117
950223.72000122,799265.26000977,3614.11010742
950234.30000305,799452.07000732,3649.25
950232.36000061,799491.07000732,3655.19995117
950231.06999969,799371.44000244,3634.56005859
950249.00999832,799650.44000244,3624.32006836
950217.75,799203.32000732,3600.04003906
950223.27999878,799201.5,3596.36010742
950223.33000183,799208.05999756,3597.59008789
950223.69000244,799232.04998779,3614.45996094
950223.70999908,799238.98999023,3613.7800293
950224.13999939,799270.36999512,3632.37011719
950225.29000092,799214.08001709,3597.98999023
950225.73999786,799263.33001709,3621.67993164
950226.33999634,799236.85998535,3603.65991211
950226.65000153,799274.02001953,3624.42993164
950226.77999878,799296.20001221,3619.92993164
950227.27999878,799271.9699707,3614.12011719
950227.51999664,799307.20001221,3622.51000977
950227.44000244,799220.47998047,3598.97998047
950227.69999695,799263.4699707,3628.23999023
950227.81999969,799229.09997559,3609.62988281
950227.83000183,799197.4699707,3593.10009766
950228.11000061,799243.36999512,3604.13989258
950227.30999756,799229.63000488,3601.29003906
950227.86000061,799205.19000244,3594.23999023
950229,799238.78997803,3609.12988281
950228.98000336,799283.77001953,3615.37988281
950229.51000214,799191.65997314,3591.06005859
950229.44999695,799252.7199707,3608.68994141
950230.01000214,799264.65997314,3610.67993164
950229.62000275,799184.58001709,3589.64990234
950227.44000244,799177.55999756,3590.06005859
950230.15000153,799301.41998291,3619.22998047
950230.15000153,799268.61999512,3622.44995117
950230.45999908,799312.90002441,3622.58007813
950229.59999847,799170.34997559,3587.25
950230.23000336,799263.2199707,3616.88989258
950230.65000153,799325.33001709,3625.14990234
950230.94000244,799343.79998779,3628.95996094
950230.59999847,799277.67999268,3620.86010742
950230.62999725,799277.76000977,3614
950230.73000336,799289.7199707,3616.51000977
950231.23000336,799353.88000488,3631.44995117
950231.63999939,799332.01000977,3625.88989258
950230.48999786,799163.80999756,3586.5300293
950230.94999695,799213.02001953,3594.84008789
950231.66999817,799259.05999756,3608.47998047
950231.79000092,799225.53997803,3597.37011719
950231.80999756,799233.7800293,3604.97998047
950231.61000061,799157.19000244,3584.12011719
950232.44000244,799249.38000488,3603.61010742
950232.90000153,799307.28997803,3618.67993164
950233,799320.20001221,3622.42993164
950233.40000153,799365.7800293,3632.13989258
950233.5,799377.2199707,3634.64990234
950232.5,799201.47998047,3591.75
950232.84999847,799179.95001221,3586.85009766
950233.26999664,799243.47998047,3608.2199707
950233.52999878,799271.7800293,3612.64990234
950234.05999756,799338.09002686,3626.33007813
950234.51999664,799389.83001709,3635.48999023
950233.80000305,799219.21002197,3595.17993164
950234.30999756,799295,3615.73999023
950234.69999695,799349.39001465,3628.32006836
950235.16000366,799402.17999268,3636.52001953
950234.40000153,799207.77001953,3592.7800293
950234.86000061,799282.29998779,3613.11010742
950235.37000275,799359.05999756,3630.75
950234.84999847,799173.35998535,3584.98999023
950234.94000244,799189.27001953,3589.08007813
950235.20999908,799238.85998535,3603.58007813
950235.73000336,799314.40997314,3618.91992188
950235.80000305,799326.60998535,3621.7800293
950236.43000031,799408.29998779,3636.20996094
950236.47999954,799415.65997314,3637.5
950235.87000275,799231.34002686,3597.43994141
950236.02000046,799264.80999756,3607.85009766
950236.25,799300.94000244,3615.86010742
950236.68999863,799371.05999756,3631.56005859
950235.97000122,799161.84002686,3582.07006836
950236.20000076,799196.69000244,3589.73999023
950236.54999924,799244.40997314,3599.72998047
950236.56000137,799254.19000244,3603.70996094
950236.72999954,799288.61999512,3613.51000977
950237.02000046,799332.71002197,3622.54003906
950237.08000183,799344.2199707,3625.64990234
950237.38999939,799382.84997559,3632.61010742
950237.5,799396.71002197,3634.63989258
950238.38000107,799422.2199707,3637.18994141
950237.54000092,799224.57000732,3594.57006836
950237.77999878,799184.2800293,3585.87011719
950238,799213.46002197,3593.26000977
950238.25,799237.38000488,3597.08007813
950238.29999924,799276.20001221,3613.98999023
950238.74000168,799307.39001465,3615.37988281
950238.81999969,799320.27001953,3618.76000977
950239.09999847,799354.45001221,3626.62988281
950239.20000076,799364.70001221,3628.65991211
950240.06999969,799376.21002197,3630.54003906
950240.25,799388.69000244,3631.52001953
950240.04000092,799391.29998779,3638.40991211
950240.45999908,799402.38000488,3632.35009766
950238.75,799167.51000977,3581.72998047
950239.15999985,799204.53997803,3589.52001953
950239.68000031,799260.34997559,3603.31005859
950239.97000122,799295.78997803,3612.62988281
950240.43000031,799338.86999512,3621.61010742
950241.34999847,799410.82000732,3633.2199707
950240.16999817,799250.17999268,3600.37011719
950242.18000031,799417.48999023,3634.20996094
950239.50999832,799156.25,3580.37988281
950239.86000061,799178.51000977,3583.5
950240.74000168,799282.78997803,3615.17993164
950241.77999878,799347.94000244,3623.52001953
950242.09999847,799396.88000488,3640.5300293
950243.04999924,799426.90002441,3634.66992188
950240.47999954,799191.61999512,3586.55004883
950240.84999847,799219.2199707,3592.73999023
950241.38999939,799266.67999268,3604.57006836
950241.91999817,799313.90002441,3616.18994141
950242.06000137,799326.27001953,3619.2800293
950242.70000076,799371.09002686,3628.11010742
950242.90000153,799382.2800293,3629.37011719
950243.86999893,799436.21002197,3636.05004883
950242.72999954,799332.78997803,3619.87988281
950243.09999847,799360.19000244,3626.12988281
950243.56000137,799394.35998535,3633.62011719
950242.04999924,799232.02001953,3595.16992188
950242.25999832,799243.11999512,3596.67993164
950242.45999908,799290.34002686,3615.43994141
950242.90999985,799303.03997803,3612.89990234
950244.75,799436.25,3642.69995117
950245.33000183,799443.78997803,3635.62988281
950242.15000153,799199.20001221,3588.19995117
950244.72999954,799401.54998779,3636.87011719
950245.25,799406.84002686,3629.90991211
950246.31999969,799455.58001709,3634.25
950244.84000015,799353.97998047,3623.25
950243.11000061,799163.91998291,3578.93994141
950243.70999908,799208.77001953,3588.7800293
950244.29999924,799254.80999756,3599.45996094
950244.90000153,799309.04998779,3612.88989258
950244.95000076,799320.39001465,3617.02001953
950245.33000183,799343.09997559,3620.64990234
950245.68000031,799365.94000244,3624.85009766
950245.34000015,799387.57000732,3639.93994141
950246.72000122,799422.0300293,3632.36010742
950243.50999832,799151.02001953,3579.61010742
950244.04000092,799170.66998291,3579.32006836
950244.15000153,799183.15002441,3582.77001953
950244.70000076,799224.20001221,3591.38989258
950245.09999847,799262.84002686,3601.26000977
950244.74000168,799276.40997314,3612.72998047
950246.45999908,799375.90997314,3626.58007813
950247.02000046,799400.82000732,3628
950247.18999863,799413.01000977,3630.32006836
950247.52999878,799430.80999756,3632.47998047
950247.50999832,799453.32000732,3642.40991211
950245.91999817,799270.9699707,3602.98999023
950246.00999832,799291.72998047,3609.66992188
950246.13999939,799298.21002197,3610.2199707
950247.83000183,799442.22998047,3641.58007813
950248.61000061,799448.80999756,3632.14990234
950245.50999832,799156.34002686,3576.60009766
950246.18999863,799215.40997314,3589
950246.47000122,799236.63000488,3592.84008789
950246.40000153,799282.69000244,3611.19995117
950247.22999954,799329.88000488,3616.34008789
950247.31000137,799337.59997559,3617.97998047
950247.97000122,799384.15997314,3625.81005859
950246.97000122,799397.64001465,3645.79003906
950248.91999817,799437.34002686,3631.88989258
950246.29000092,799144.4699707,3573.92993164
950246.74000168,799188.90997314,3583.41992188
950246.81000137,799196.01000977,3584.97998047
950246.90000153,799202.70001221,3586.11010742
950247.84999847,799315.95001221,3612.73999023
950248.16999817,799349.2199707,3620.05004883
950248.31000137,799359.73999023,3621.76000977
950249.50999832,799463.09002686,3641.64990234
950247.66999817,799176.47998047,3579.13989258
950248.22999954,799243.92999268,3594.43994141
950249.27999878,799371.66998291,3622.93994141
950248.09000015,799391.30999756,3645.94995117
950250.83000183,799454.64001465,3629.68994141
950248.63999939,799164.20001221,3575.93994141
950249.13999939,799228.39001465,3590.09008789
950249.27999878,799252.36999512,3596.02001953
950249.27000046,799258.32000732,3597.9699707
950249.52999878,799305.2199707,3609.26000977
950249.45999908,799402.17999268,3641.23999023
950250.81000137,799418.80999756,3628.68994141
950250.95000076,799426.29998779,3629.29003906
950249.63999939,799152.02001953,3573.39990234
950249.88000107,799171.01000977,3576.14990234
950249.86000061,799184.2800293,3580.44995117
950250.04000092,799209.15002441,3585.81005859
950250.16999817,799221.5300293,3587.92993164
950250.27999878,799266.79998779,3600.33007813
950249.95999908,799277.77001953,3607.70996094
950250.50999832,799293.28997803,3605.30004883
950250.52999878,799322.60998535,3613.80004883
950250.83000183,799343.2800293,3616.29003906
950250.95000076,799404.33001709,3633.31005859
950251.50999832,799406.75,3626.91992188
950252.18000031,799442.7800293,3629.66992188
950251.72000122,799450.95001221,3637.95996094
950251.40000153,799273.91998291,3601
950250.99000168,799287.34002686,3609.73999023
950251.56999969,799311.33001709,3609.57006836
950251.88000107,799354.09997559,3618.06005859
950251.97999954,799364.69000244,3620.02001953
950252.15999985,799377.9699707,3621.60009766
950252.50999832,799442.34002686,3636.2800293
950251.93999863,799141.5300293,3569.42993164
950252.02000046,799158.66998291,3573.23999023
950252.22999954,799215.30999756,3586.58007813
950252.43999863,799236.27001953,3589.97998047
950252.54000092,799300.07000732,3606.35009766
950252.70000076,799329.54998779,3612.51000977
950252.68000031,799335.64001465,3614.4699707
950253.40000153,799412.96002197,3627.5300293
950253.59999847,799432.4699707,3630.66992188
950254.31999969,799449.15002441,3627.01000977
950253.79000092,799457.21002197,3635.5300293
950253.20999908,799178.86999512,3576.76000977
950253.06000137,799192.46002197,3582.16992188
950253.13999939,799199.0300293,3583.0300293
950253.54999924,799317.80999756,3609.95996094
950254.65000153,799464.73999023,3637.23999023
950254.15000153,799166.91998291,3573.22998047
950254.31999969,799243.57000732,3591.57006836
950254.72999954,799359.85998535,3617.12988281
950254.81999969,799370.23999023,3618.95996094
950253.25,799386.94000244,3640.26000977
950254.83000183,799383.82000732,3622.31005859
950253.06999969,799396.26000977,3644.65991211
950255.43000031,799422.70001221,3625.95996094
950255.75999832,799436.33001709,3626.08007813
950254.81999969,799147.82000732,3569.33007813
950255,799226.52001953,3587.73999023
950255.09999847,799250.21002197,3592.76000977
950254.90999985,799263,3598
950254.83000183,799279.27001953,3603.02001953
950255.27999878,799324.53997803,3609.63989258
950255.34000015,799347.90997314,3614.94995117
950254.43999863,799395.78997803,3636.72998047
950255.97999954,799404.80999756,3622.84008789
950256.34999847,799429.39001465,3625.39990234
950255.40000153,799454.79998779,3642.06005859
950255.52000046,799205.40997314,3582.81005859
950255.68000031,799257.48999023,3594.4699707
950255.79000092,799306.58001709,3605.56005859
950255.95000076,799341.23999023,3612.61010742
950255.81999969,799186.47998047,3578.32006836
950255.97999954,799220.65997314,3585.48999023
950255.68000031,799285.51000977,3605.04003906
950256.20000076,799294.38000488,3601.89990234
950255.81999969,799400.38000488,3632.56005859
950257.52999878,799443.69000244,3626.32006836
950255.97000122,799173.34997559,3574.12988281
950256.45999908,799446.90997314,3639.65991211
950257.15999985,799411.17999268,3622.83007813
950255.09000015,799396.5300293,3622.87011719
950247.65999985,799390.2199707,3627.45996094
950223.65000153,799192.59997559,3593.91992188
950220.30000305,799180.70001221,3593.37988281
950223.69000244,799186.40997314,3592.57006836
950228.02999878,799256.89001465,3625.44995117
950220.98000336,799174.45001221,3592.89990234
950221.16999817,799163.13000488,3590.92993164
950225.55000305,799160.08001709,3587.47998047
950249.04000092,799611.29998779,3627.70996094
950250.20000076,799461.13000488,3631.59008789
950257.29999924,799391.77001953,3630.27001953
950258.09999847,799417.61999512,3622.97998047
950257.90999985,799377.08001709,3618.82006836
950258.15000153,799390.94000244,3638.68994141
950257.11000061,799312.70001221,3606.44995117
950257.5,799332.35998535,3609.62988281
950257.93999863,799354.34002686,3613.90991211
950259.79000092,799445.73999023,3632.20996094
950256.91999817,799271.22998047,3602.35009766
950258.77999878,799365.85998535,3616.40991211
950259.18000031,799387.82000732,3624.65991211
950260.15999985,799434.01000977,3622.29003906
950260.63000107,799460.40997314,3636.63989258
950260.11999893,799398.85998535,3619.15991211
950260.61999893,799424.61999512,3622.67993164
950257.47999954,799213.40997314,3583.39990234
950257.81999969,799232.15002441,3587.30004883
950259.06000137,799301.53997803,3602.58007813
950259.38999939,799320.2199707,3606.01000977
950260.59000015,799386.09997559,3618.58007813
950261.68000031,799449.70001221,3636.75
950258.02000046,799195.9699707,3579.18994141
950259.25999832,799268.90997314,3596.57006836
950259.47000122,799281.04998779,3598.77001953
950260.56999969,799344.98999023,3610.18994141
950261.06999969,799372.90002441,3615.38989258
950261.66999817,799406.15997314,3619.37011719
950259.54000092,799240.58001709,3589.06005859
950259.90000153,799262.69000244,3594.06005859
950260.29000092,799288.23999023,3601.07006836
950260.95999908,799327.5300293,3606.69995117
950261.52000046,799360.7199707,3612.93994141
950262.45000076,799413.48999023,3620.12011719
950262.97999954,799439.2199707,3619.9699707
950260.33000183,799247.4699707,3589.68994141
950261.27999878,799308.44000244,3602.72998047
950261.75,799338.28997803,3608.18994141
950262.65999985,799392.95001221,3617.66992188
950259.84999847,799180.75,3574.18994141
950260.52000046,799225.80999756,3584.80004883
950260.97000122,799254.97998047,3591.48999023
950260.09999847,799167.91998291,3571.17993164
950260.58000183,799201.90997314,3579.27001953
950261.59000015,799275.03997803,3599.31005859
950262.81999969,799351.89001465,3610.36010742
950263.22999954,799379.48999023,3616.5
950263.93000031,799419.79998779,3619.86010742
950264.11999893,799428.83001709,3619.67993164
950260.97000122,799208.28997803,3580.5300293
950263.72000122,799401.84002686,3623.51000977
950260.86999893,799190.72998047,3577.06005859
950262.34999847,799296.08001709,3600.51000977
950262.63000107,799315.16998291,3603.77001953
950260.50999832,799161.84002686,3569.29003906
950260.54000092,799394.10998535,3625.12011719
950261.47999954,799219.67999268,3582.69995117
950262.59999847,799173.76000977,3571.4699707
950257.95999908,799155.84002686,3569.15991211
950261.97999954,799151.73999023,3566.70996094
950263.31999969,799236.22998047,3586.27001953
950264.93999863,799183.64001465,3572
950264.88999939,799195.48999023,3575.51000977
950264.81000137,799213.21002197,3580.12011719
950264.65000153,799243.77001953,3586.86010742
950264.43999863,799277.67999268,3593.91992188
950264.27999878,799302.95001221,3599.31005859
950265.50999832,799157.46002197,3566.73999023
950265.47000122,799165.73999023,3568.7800293
950264.91999817,799266.65997314,3593.06005859
950264.81000137,799283.86999512,3596.77001953
950265.52000046,799230.33001709,3583.98999023
950265.11999893,799290.67999268,3596.88989258
950264.90000153,799323.02001953,3604.29003906
950264.84000015,799332.59997559,3606.01000977
950264.61000061,799366.5300293,3612.65991211
950266.13999939,799189.65002441,3573.47998047
950266.04999924,799204.09002686,3576.92993164
950265.77000046,799250.84997559,3588.31005859
950265.72000122,799259.42999268,3590.79003906
950266.81000137,799223.03997803,3581.81005859
950265.91999817,799342.75,3606.54003906
950267.54000092,799148.84997559,3564.22998047
950266.00999832,799357.40997314,3609.45996094
950265.66999817,799401.23999023,3617.26000977
950267.77999878,799177.26000977,3569.7800293
950266.77000046,799310.15997314,3599.9699707
950266.18000031,799386.14001465,3615.80004883
950267.09999847,799297.16998291,3596.4699707
950267.04000092,799372.7800293,3612.87011719
950266.66999817,799410.13000488,3616.90991211
950267.81999969,799318.11999512,3601.36010742
950269.10000038,799209.66998291,3577.13989258
950266.99000168,799434.2800293,3617.91992188
950269.13999939,799239.09997559,3584.62988281
950268.82999992,799271.75,3592.26000977
950268.07999992,799348.95001221,3606.92993164
950269.97999954,799171.04998779,3568.12988281
950269.56999969,799217.5300293,3578.7199707
950268.63999939,799350.98999023,3626.87988281
950267.97999954,799424.82000732,3616.67993164
950270.27000046,799200.26000977,3573.9699707
950269.06999969,799328.84997559,3602.79003906
950268.22999954,799417.09002686,3616.12011719
950270.85000038,799154.83001709,3564.4699707
950269.87000084,799264.35998535,3589.68994141
950268.63999939,799394.5,3616.45996094
950269.86000061,799287.65002441,3599.81005859
950269.36000061,799336.64001465,3603.7199707
950268.95999908,799380.66998291,3614.30004883
950271.04999924,799183.14001465,3569.87988281
950270.95000076,799194.20001221,3572.23999023
950270.64999962,799228.02001953,3580.67993164
950270.48999977,799246.05999756,3585.25
950270.15999985,799280.41998291,3593.36010742
950269.90999985,799304.71002197,3597.12988281
950271.54000092,799165.04998779,3566.76000977
950270.70000076,799254.86999512,3587.40991211
950269.62999916,799364.21002197,3609.60009766
950270.95999908,799291.5300293,3594.18994141
950270.54000092,799359.30999756,3620.87988281
950270.34000015,799404.75,3614.5
950273.57999992,799149.80999756,3561.93994141
950272.01000023,799312.71002197,3597.54003906
950271.87999916,799323.2800293,3600.42993164
950271.62999916,799344.25,3604.41992188
950274.02000046,799176.09997559,3567.91992188
950273.31999969,799234,3581.19995117
950273.79000092,799222.10998535,3578.20996094
950271.95999908,799356.53997803,3626.86010742
950272.04999924,799357.47998047,3606.94995117
950271.63999939,799389.23999023,3614.41992188
950271.37999916,799412.0300293,3613.12988281
950271.17000008,799430.15997314,3614.92993164
950274.28000069,799205.29998779,3573.13989258
950273.05999947,799298.86999512,3594.68994141
950274.75,799188.48999023,3569.39990234
950272.36000061,799370.15002441,3609.22998047
950274.68000031,799214.10998535,3576.32006836
950273.95999908,799269.09997559,3588.87011719
950273.86000061,799276.30999756,3590.08007813
950274.62999916,799242.09997559,3582.70996094
950274.03000069,799286.09997559,3592.16992188
950276.05999947,799159.14001465,3563.31005859
950273.11000061,799376,3611.5
950275.11000061,799251.5,3584.5300293
950274.98999977,799260.05999756,3587.13989258
950273.55999947,799357.72998047,3614.19995117
950272.82999992,799421.03997803,3613.54003906
950273.31999969,799398.4699707,3614.63989258
950272.89999962,799436.21002197,3614.62011719
950276.43000031,799196.59997559,3570.23999023
950277.12000084,799167.13000488,3564.7800293
950276.90999985,799182.08001709,3567.43994141
950274.70999908,799331.5,3601.94995117
950274.21999931,799348.15997314,3625.77001953
950274.45000076,799350,3605.38989258
950275.38999939,799318.28997803,3597.9699707
950274.38999939,799383.42999268,3612.02001953
950275.77000046,799306.32000732,3595.25
950275.26000023,799338.59997559,3602.07006836
950274.64999962,799363.15002441,3623.7800293
950277.39999962,799227.28997803,3577.61010742
950275.14999962,799363.0300293,3606.67993164
950275.46999931,799351.15997314,3616.15991211
950276.84000015,799292.84002686,3591.84008789
950275.04999924,799407.34997559,3611.22998047
950276.54999924,799350.28997803,3631.77001953
950277.70999908,799281.90002441,3589.33007813
950276.39999962,799370.16998291,3613.98999023
950279.70999908,799175.58001709,3565.18994141
950279.05999947,799218.4699707,3575.39990234
950278.78000069,799237.19000244,3579.90991211
950279.52000046,799211.33001709,3572.93994141
950278.70999908,799265.03997803,3586.34008789
950277.94000053,799312.9699707,3595.56005859
950277.73999977,799325.44000244,3598.76000977
950276.69000053,799393.01000977,3612.63989258
950279.26000023,799246.69000244,3582.13989258
950278.85000038,799272.61999512,3587.14990234
950277.67000008,799353.44000244,3625.31005859
950277.59000015,799353.89001465,3610.82006836
950276.55999947,799415.77001953,3612.33007813
950276.39999962,799426.20001221,3613.54003906
950280.31999969,799187.60998535,3566.57006836
950280.10000038,799201.98999023,3570.02001953
950279.37000084,799256.15997314,3584.45996094
950277.79999924,799355.83001709,3604.07006836
950278.70000076,799298.90002441,3591.7800293
950278.11000061,799345.47998047,3601.89990234
950277.70999908,799373.26000977,3607.60009766
950276.75,799444.59997559,3624.64990234
950281.28000069,799162.16998291,3561.47998047
950278.71999931,799359.40002441,3627.37988281
950278.29999924,799379.61999512,3608.7800293
950277.98999977,799401.41998291,3611.57006836
950279.09000015,799344.61999512,3624.06005859
950279.97999954,799287.98999023,3589.36010742
950278.93000031,799367.03997803,3621.2199707
950278.81999969,799385.52001953,3615.90991211
950278.10000038,799432.80999756,3614.0300293
950282.22999954,799169.98999023,3562.51000977
950279.87999916,799334.40997314,3599.68994141
950282.03000069,799195.29998779,3567.32006836
950279.67000008,799361.30999756,3611.48999023
950279.56999969,799367.03997803,3608.70996094
950280.29000092,799342.42999268,3610.5300293
950282.03000069,799231.64001465,3577.19995117
950281.18000031,799304.69000244,3591.77001953
950280.42000008,799357.20001221,3620.87988281
950283.29000092,799180.71002197,3564.93994141
950282.64999962,799225.14001465,3574.7800293
950281.21999931,799319.98999023,3596.23999023
950280.20000076,799388.67999268,3609.77001953
950281.12000084,799348.85998535,3618.60009766
950282.64999962,799277.78997803,3586.68994141
950282.48999977,799286.83001709,3595.62988281
950281.5,799348.86999512,3608.38989258
950284.19999981,799207.83001709,3569.77001953
950283.64999962,799242.92999268,3578.79003906
950281.69000053,799363.72998047,3603.75
950280.95999908,799409.82000732,3610.43994141
950280.79999924,799420.33001709,3611.81005859
950285.47000027,799158,3558.30004883
950283.95000076,799250.9699707,3580.79003906
950283.78000069,799261.79998779,3583.16992188
950283.64999962,799269.15997314,3584.32006836
950283.22999954,799294.84997559,3588.68994141
950282.19000053,799349.59002686,3627.39990234
950284.92000008,799217.16998291,3572.42993164
950283.01000023,799328.95001221,3597.43994141
950283.65999985,799310.5300293,3592.33007813
950282.18000031,799396.13000488,3610.48999023
950286.34000015,799175.2800293,3561.70996094
950286.14000034,799186.66998291,3564.25
950285.89999962,799200.72998047,3567.16992188
950282.87999916,799365.69000244,3616.52001953
950282.88999939,799370.84002686,3605
950286.81000042,799164.55999756,3559.77001953
950284.43999958,799290.86999512,3602.08007813
950283.12999916,799355.94000244,3630.15991211
950282.34000015,799427.53997803,3612.08007813
950285.85000038,799236.83001709,3576.76000977
950283.75,799350.13000488,3601.76000977
950283.36000061,799362.61999512,3623.54003906
950283.62000084,799377.44000244,3606.01000977
950285.52000046,799286.55999756,3586.5
950283.31999969,799404.08001709,3609.59008789
950287.53999996,799193.69000244,3564.81005859
950285.77000046,799295.21002197,3594.52001953
950285.72999954,799300.65997314,3589.37011719
950284.97999954,799337.85998535,3598.41992188
950287.31999969,799229.2199707,3574.01000977
950284.75,799358.05999756,3602.34008789
950286.14000034,799284.45001221,3602.88989258
950285.64999962,799316.71002197,3593.31005859
950284.31000042,799383.4699707,3607.55004883
950286.86999989,799256.76000977,3580.48999023
950288.11999989,799213.03997803,3568.88989258
950287.89999962,799223.25,3571.79003906
950285.14999962,799355.4699707,3608.93994141
950285.06000042,799353.82000732,3623.36010742
950279.39999962,799150.42999268,3559.57006836
950280.44000053,799144.29998779,3557.95996094
950284.18999958,799433.91998291,3613.0300293
950284.43999958,799415.09997559,3611.02001953
950285.80000019,799358.65997314,3616.12988281
950285.97000027,799390.69000244,3608.12988281
950285.94999981,799342.32000732,3607.19995117
950286.40999985,799422.94000244,3610.92993164
950285.88000011,799345.44000244,3616.37011719
950286.23999977,799323.95001221,3594.56005859
950286.68000031,799370.82000732,3616.90991211
950286.71000004,799345.91998291,3624.70996094
950286.56999969,799344.92999268,3599.4699707
950287.30000019,799409.40997314,3609.15991211
950287.71000004,799359.75,3627.31005859
950287.44999981,799362.97998047,3611.42993164
950287.71000004,799398.84002686,3609.11010742
950288.31000042,799368.41998291,3607.19995117
950288.94999981,799429.98999023,3611.38989258
950287.64999962,799278.20001221,3594.44995117
950288.17000008,799332.35998535,3596.16992188
950289.43000031,799437.4699707,3612.7199707
950289.07999992,799363.07000732,3620.42993164
950288.01000023,799274.08001709,3589.32006836
950288.34000015,799306.55999756,3589.61010742
950288.97000027,799348.4699707,3606.43994141
950289.28999996,799373.26000977,3611.04003906
950288.64999962,799292.63000488,3586.39990234
950289.75,799374.66998291,3604.90991211
950290.28999996,799417.32000732,3610.20996094
950289.13000011,799295.90002441,3600.12988281
950289.90999985,799361.63000488,3602.75
950290.17000008,799381.14001465,3605.86010742
950288.96000004,799266.32000732,3581.25
950289.01000023,799247.01000977,3576.97998047
950289.65999985,799289.9699707,3593.94995117
950290.52000046,799350.15997314,3614.98999023
950290.52000046,799355.08001709,3604.72998047
950291.69999981,799444.52001953,3611.72998047
950290.22999954,799313.28997803,3590.58007813
950290.86999989,799351.08001709,3623.32006836
950291.48999977,799404.71002197,3608.84008789
950288.71000004,799181.09002686,3561.75
950290.90999985,799338.7199707,3596.09008789
950291.60999966,799388.09997559,3607.18994141
950290.68999958,799289.90997314,3601.80004883
950291.72999954,799366.75,3614.14990234
950292.48999977,799423.95001221,3609.68994141
950290.96000004,799279.67999268,3601.65991211
950291.22000027,799299.71002197,3586.4699707
950291.48999977,799319.67999268,3592.84008789
950291.59000015,799327.34002686,3593.79003906
950290.35999966,799205.20001221,3566.13989258
950290.85000038,799240.02001953,3574.45996094
950292.46999979,799359.53997803,3615.77001953
950292.96000004,799394.23999023,3608.14990234
950291.81999969,799279.09002686,3581.65991211
950292.63000011,799344.7199707,3622.29003906
950292.78000021,799351.72998047,3599.05004883
950293.5999999,799410.77001953,3608.68994141
950291.93000031,799260.09997559,3578.66992188
950292.42000008,799299.03997803,3595.83007813
950293.36999989,799367.69000244,3603.37988281
950294.28999996,799433,3609.94995117
950291.67000008,799218.92999268,3568.7800293
950292.69000006,799299.40002441,3604.07006836
950293.4000001,799356.90997314,3626.29003906
950291.64999962,799198.39001465,3564.16992188
950292.42999983,799254.0300293,3576.77001953
950292.61999989,799274.46002197,3595.62011719
950292.36999989,799234.04998779,3572.40991211
950293.80999994,799345.21002197,3609.83007813
950291.88000011,799187.47998047,3561.56005859
950293.30000019,799281.83001709,3593.32006836
950294.11999989,799333.45001221,3594.29003906
950294.36000013,799355.26000977,3620.26000977
950291.73999977,799169.69000244,3558.26000977
950293.92000008,799308.83001709,3587.94995117
950296.03999996,799440.19000244,3610.52001953
950294.07000017,799302.85998535,3591.05004883
950295.44999981,799377.70001221,3605.12011719
950296.46000004,799416.89001465,3608.79003906
950295.34000015,799356.66998291,3610.35009766
950296.33999991,799400.36999512,3607.7800293
950292.03000021,799176.17999268,3559.13989258
950293.05999994,799227.82000732,3570.76000977
950295.61000013,799357.09997559,3600.89990234
950295.51000023,799346.08001709,3596.88989258
950294.55999994,799293.47998047,3584.38989258
950296.63000011,799384.01000977,3606.0300293
950296.27999997,799363.60998535,3610.84008789
950297.91000009,799427.45001221,3609.25
950294.61999989,799284.40002441,3603.60009766
950295.48000002,799306.94000244,3597.18994141
950295.8499999,799316.58001709,3589.35009766
950295.23000002,799294.4699707,3600.95996094
950297.67000008,799390.22998047,3606.35009766
950294.51000023,799247.05999756,3573.98999023
950294.94999981,799265.90997314,3578.20996094
950295.46999979,799285.65997314,3581.58007813
950295.53999996,799294.80999756,3591.35009766
950298.29999995,799406.32000732,3607.82006836
950296.36999989,799323.48999023,3590.9699707
950293.61999989,799210.60998535,3566.84008789
950297.06999993,799339.5300293,3594.81005859
950298.07000005,799362.9699707,3601.35009766
950300.20999999,799434.82000732,3608.69995117
950298.55999994,799372.14001465,3603.45996094
950298.11000001,799350.40997314,3610.45996094
950297.26999998,799302.07000732,3583.7800293
950300.72000003,799421.79998779,3608.12011719
950294.48999977,799270.27001953,3588.9699707
950288.65999985,799272.47998047,3582.62011719
950294.69999981,799193.53997803,3561.55004883
950296.48000002,799277.01000977,3585.26000977
950297.04999995,799280.48999023,3598.48999023
950297.51999998,799300.5300293,3599.87011719
950298.66999996,799358.71002197,3615.33007813
950296.25,799239.09002686,3571.30004883
950295.28000021,799181.95001221,3558.69995117
950297.6500001,799288.40002441,3594.9699707
950296.02999997,799204,3563.66992188
950297.16000009,799257.97998047,3575.52001953
950298.47000003,799329.84002686,3591.62011719
950298.69000006,799295.72998047,3606.2800293
950296.88000011,799216.25,3566.32006836
950297,799222.79998779,3567.87988281
950299.31,799351.91998291,3603.36010742
950298.79999995,799289.2800293,3603.02001953
950297.16000009,799196.15002441,3567.22998047
950297.56999993,799232.52001953,3569.09008789
950298.58000004,799281.64001465,3588.98999023
950297.56999993,799188.45001221,3558.93994141
950298.50999999,799251.86999512,3573.43994141
950299.43000001,799299.53997803,3593.67993164
950299.77,799305.48999023,3590.9699707
950299.69999999,799310.82000732,3586.37988281
950301.07000005,799412.67999268,3607.25
950298.26999998,799175.55999756,3556.25
950300.66000003,799351.09997559,3597.04003906
950301.25999999,799396.21002197,3606.54003906
950300.38999999,799289.69000244,3588.86010742
950300.28,799295.7199707,3581.12988281
950301.44000006,799379.08001709,3603.90991211
950299.11000001,799169.19000244,3554.52001953
950299.47000003,799198.45001221,3560.40991211
950299.65000001,799210.03997803,3564.5
950300.08,799245.44000244,3570.73999023
950300.30000001,799263.76000977,3573.95996094
950300.5,799280.70001221,3576.87988281
950299.96,799190.54998779,3565.93994141
950301.45000005,799320.76000977,3588.56005859
950301.63999999,799336.28997803,3592.06005859
950301.75999999,799344.2800293,3595.43994141
950301.92999995,799358.22998047,3598.39990234
950302.43000007,799367.85998535,3600.81005859
950302.6400001,799385.34997559,3604.56005859
950302.00999999,799282.94000244,3594.91992188
950301.46000004,799228.03997803,3566.56005859
950303.58999991,799429.0300293,3606.87011719
950302.53999996,799295.66998291,3589.31005859
950303.55999994,799402.95001221,3606.42993164
950301.50999999,799184.05999756,3556.70996094
950302.07999992,799239.44000244,3568.54003906
950302.11999989,799219.45001221,3564.9699707
950303.02999997,799284.64001465,3600.89990234
950302.93000007,799304.73999023,3583.39990234
950302.69000006,799256.84002686,3571.85009766
950303.19000006,799291.45001221,3594.62988281
950302.32999992,799192.48999023,3557.77001953
950303.00999999,799269.76000977,3574.01000977
950303.48000002,799293.35998535,3601.31005859
950302.31999993,799163.07000732,3552.08007813
950303.94000006,799328.2199707,3588.89990234
950303.20000005,799206.36999512,3560.7800293
950303.97000003,799282.08001709,3584.36010742
950303.75,799178.27001953,3554.40991211
950304.48999977,799249.95001221,3570.0300293
950304.82000017,799315.07000732,3586.30004883
950305.28999996,799417.21002197,3605.06005859
950304.48000002,799172.08001709,3552.87988281
950305.0999999,799278.57000732,3590.38989258
950305.03000021,799292.46002197,3578.37988281
950305.44999981,799373.2199707,3604.76000977
950305.48999977,799391.17999268,3604.65991211
950305.53999996,799408.82000732,3604.98999023
950305.03999996,799212.32000732,3561.64990234
950305.13000011,799233.51000977,3565.54003906
950305.38000011,799299.7800293,3580.10009766
950305.30999994,799198.42999268,3558.01000977
950306.07999992,799423.66998291,3604.54003906
950305.86000013,799285.88000488,3576.5
950305.98999977,799263.15997314,3570.94995117
950306.03000021,799278.36999512,3574.5300293
950306.26999998,799354.04998779,3596.07006836
950306.26000023,799289.64001465,3583.95996094
950306.21000004,799244.4699707,3567.47998047
950306.48999977,799362.48999023,3597.93994141
950306.28999996,799224.67999268,3564.37988281
950306.53999996,799187.86999512,3555.12011719
950306.57999992,799340.13000488,3592.79003906
950307.26999998,799167.05999756,3549.90991211
950307.57000017,799160.75,3549.01000977
950307.42000008,799218.32000732,3561.39990234
950307.07999992,799347.57000732,3594.66992188
950306.98999977,799380.86999512,3601.68994141
950307.32999992,799322.65997314,3587.58007813
950307.07000017,799397.82000732,3604.62011719
950307.48000002,799334.04998779,3590.13989258
950308.27000046,799204.05999756,3557.45996094
950307.80000019,799309.71002197,3584.11010742
950308.96000004,799181.16998291,3552.56005859
950308.43999958,799272.22998047,3572.13989258
950308.60000038,799254.61999512,3568.57006836
950307.88999987,799370.5,3599.26000977
950308.94999981,799193.63000488,3555.12011719
950308.68999958,799238.90002441,3565.37988281
950296.28999996,799160.78997803,3554.20996094
950298.47000003,799152.96002197,3551.72998047
950308.25,799430.34997559,3602.63989258
950309.03999996,799404.2199707,3602.4699707
950309.72000027,799413.23999023,3601.91992188
950309.48999977,799386.83001709,3600.09008789
950310.38000011,799420.69000244,3600.66992188
950303.19000006,799149.70001221,3548.62988281
950310.90999985,799394.35998535,3600.95996094
950310.59000015,799376.19000244,3599.09008789
950312.02999973,799426.55999756,3598.85009766
950303.55999994,799143.34997559,3547.2199707
950313.15999985,799433.14001465,3597.12011719
950310.69999981,799352.38000488,3601.0300293
950312.89000034,799407.83001709,3599.08007813
950310.23999977,799328.16998291,3588.43994141
950311.32999992,799359.20001221,3602.84008789
950312.77000046,799400.57000732,3598.82006836
950311.68999958,799365.54998779,3596.32006836
950311.36999989,799357.69000244,3595.82006836
950312.72999954,799382.01000977,3597.40991211
950314.27999973,799416.04998779,3597.7199707
950314.81999969,799422.19000244,3595.25
950311.68000031,799343.69000244,3591.89990234
950312.27999973,799351.27001953,3593.87988281
950310.22999954,799304.48999023,3580.91992188
950314.38000011,799390.95001221,3596.77001953
950310.85000038,799316.76000977,3586.0300293
950310.31000042,799296.34997559,3577.43994141
950310.98999977,799289.64001465,3575.02001953
950314.30000019,799372.25,3595.93994141
950311.43999958,799283.11999512,3573.92993164
950313.46000004,799334.75,3588.19995117
950315.89000034,799397.73999023,3593.95996094
950316.40999985,799411.14001465,3594.38989258
950310.19999981,799230.59997559,3562.63989258
950311.56000042,799266.02001953,3569.56005859
950316.81999969,799404.02001953,3593.94995117
950310.25,799209.86999512,3558.89990234
950311.68999958,799248.03997803,3565.77001953
950314.02999973,799310.55999756,3584.02001953
950314.44999981,799322.2800293,3585.92993164
950315.92000008,799361.66998291,3593.7199707
950316.79000092,799384.73999023,3593.25
950313.52000046,799276.72998047,3571.38989258
950317.17000008,799377.45001221,3593.22998047
950318.65999985,799417.82000732,3592.5300293
950312.26000023,799223,3560.5300293
950313.56999969,799259.36999512,3567.29003906
950316.95000076,799355.40997314,3591.56005859
950319.46999931,799424.10998535,3590.41992188
950315.59000015,799299.7800293,3578.29003906
950316.57999992,799329.09997559,3586.29003906
950316.96999931,799340.32000732,3588.77001953
950317.20999908,799347.47998047,3590.57006836
950317.96999931,799368.73999023,3592.25
950312.34000015,799187.85998535,3552.54003906
950314,799236.07000732,3562.18994141
950319.27000046,799390.59997559,3591.2199707
950313.35000038,799198.88000488,3553.92993164
950313.92000008,799215.92999268,3557.82006836
950314.81999969,799242.53997803,3563.02001953
950315.78999996,799271.46002197,3568.7199707
950316.52000046,799293.91998291,3575.47998047
950320.05999947,799398.46002197,3589.0300293
950316.87999916,799287.36999512,3573.06005859
950317.72999954,799316.01000977,3584.31005859
950320.87000084,799408.23999023,3590.70996094
950316.34000015,799252.05999756,3564.23999023
950317.95999908,799305.40002441,3580.5
950315.60000038,799207.78997803,3555.37988281
950316.29000092,799229.78997803,3559.89990234
950317.39999962,799264.82000732,3566.02001953
950320.98999977,799381.2800293,3589.29003906
950318.59000015,799281.40997314,3571.7800293
950320.98999977,799362.63000488,3589.23999023
950321.36000061,799373.72998047,3589.48999023
950322.77000046,799414.75,3587.93994141
950323.25,799428.30999756,3586.89990234
950316.59000015,799183.66998291,3549.85009766
950316.89999962,799194.11999512,3551.7800293
950320.54999924,799324.39001465,3584.85009766
950320.81999969,799333.72998047,3586.43994141
950323.70999908,799420.90002441,3587.12988281
950318.70999908,799220.28997803,3556.2199707
950321.05999947,799310.67999268,3581.93994141
950322.23999977,799351.34002686,3588
950323.45000076,799387.59002686,3587.12011719
950319.37000084,799200.91998291,3552.29003906
950319.71999931,799213.48999023,3554.05004883
950320.29999924,799234.98999023,3558.5300293
950320.60000038,799246.89001465,3561.66992188
950320.90999985,799257.11999512,3562.84008789
950321.85000038,799299.30999756,3577.86010742
950322.92000008,799341.07000732,3586.91992188
950324.65999985,799393.71002197,3585.86010742
950324.93000031,799402.96002197,3586.69995117
950322.45999908,799270.34997559,3566.62011719
950322.55999947,799276.40997314,3569.64990234
950322.87999916,799291.34002686,3574.2800293
950323.44000053,799318.66998291,3583.63989258
950324.56999969,799357.34002686,3586.52001953
950324.86000061,799367.10998535,3587.14990234
950321.70999908,799181.34997559,3546.92993164
950321.87999916,799188.53997803,3548.45996094
950322.84000015,799227.85998535,3556.15991211
950323.70999908,799263.88000488,3563.42993164
950324.42000008,799305.5300293,3579.37011719
950325.02000046,799329.0300293,3582.93994141
950326.37999916,799376.29998779,3585.98999023
950327.43000031,799408.65997314,3584.84008789
950327.97999954,799423.89001465,3582.86010742
950328.22999954,799431.64001465,3582.76000977
950323.54999924,799195.26000977,3549.5300293
950323.67000008,799210.34002686,3557.77001953
950324.62000084,799242.04998779,3558.72998047
950325.30999947,799281.76000977,3571.9699707
950326.47999954,799336.19000244,3583.54003906
950326.75,799346.89001465,3585
950327.88999939,799382.16998291,3583.91992188
950328.88999939,799414.67999268,3583.73999023
950325.42000008,799211.09997559,3551.58007813
950325.55999947,799217.64001465,3552.94995117
950326.20999908,799250.72998047,3560.92993164
950327.17000008,799311.53997803,3579.9699707
950328.53000069,799361.2199707,3582.85009766
950329.37000084,799388.30999756,3582.63989258
950329.63999939,799396.05999756,3581.9699707
950330.96999931,799437.95001221,3580.72998047
950326.67000008,799201.61999512,3549.72998047
950327.34000015,799232.09002686,3554.69995117
950327.75,799258.9699707,3562.54003906
950328.13999939,799288.27001953,3572.2199707
950328.22999954,799295.70001221,3574.83007813
950328.69000053,799323.33001709,3581.72998047
950329.52000046,799353.09997559,3582.77001953
950329.97999954,799367.64001465,3582.27001953
950331.10000038,799402.29998779,3580.69995117
950327.69000053,799179.85998535,3544.41992188
950327.80999947,799187.39001465,3546.16992188
950328.51000023,799223.46002197,3552.9699707
950328.79999924,799238.14001465,3555.65991211
950329.15999985,799267.41998291,3564.75
950329.19000053,799273.38000488,3567.45996094
950329.56999969,799302.54998779,3576.13989258
950330.18000031,799332.13000488,3580.58007813
950330.38999939,799341.05999756,3581.48999023
950331.39999962,799374.04998779,3580.95996094
950332.49000168,799408.69000244,3579.44995117
950332.75,799416.5,3578.90991211
950333,799425.84002686,3579.48999023
950333.27999878,799432.19000244,3577.81005859
950330.02000046,799245.53997803,3558.5
950332.68999863,799380.67999268,3579.62011719
950333.06000137,799391.70001221,3578.62988281
950334.63000107,799440.52001953,3576.16992188
950330.23999977,799195.57000732,3547.22998047
950331.31999969,799279.54998779,3568.9699707
950331.73999977,799315.98999023,3578.77001953
950332.61999893,799348,3579.25
950332.95000076,799357.88000488,3578.55004883
950331.31999969,799208.77001953,3549.05004883
950331.38999939,799215.63000488,3550.90991211
950331.92000008,799254.46002197,3559.95996094
950332.43999863,799309.39001465,3575.9699707
950332.81000137,799326.71002197,3577.63989258
950333.88000107,799364.58001709,3577.57006836
950334.95999908,799396.60998535,3574.88989258
950335.58000183,799403.39001465,3575.83007813
950336.08000183,799420.75,3575.56005859
950336.93999863,799446.35998535,3573.58007813
950333.08000183,799263.09002686,3561.36010742
950333.20000076,799292.25,3571.55004883
950333.97999954,799336.25,3577.62988281
950336.68000031,799427.45001221,3574.60009766
950337.02000046,799435.42999268,3572.84008789
950333.02000046,799228.80999756,3552.25
950333.38999939,799285.65002441,3569.43994141
950336.31999969,799412.03997803,3575.81005859
950332.61999893,799201.80999756,3547.83007813
950299.75,799274.84997559,3590.93994141
950297.70000005,799273.25,3577.22998047
950335.86000061,799385.46002197,3576.23999023
950339.95999908,799418.59002686,3570.98999023
950335.27000046,799376.04998779,3576.14990234
950337.29999924,799391,3573.20996094
950339.56000137,799406.86999512,3571.87011719
950339.61999893,799399.2199707,3571.56005859
950335.75999832,799353.05999756,3575.54003906
950337.59999847,799368.75,3574.01000977
950342.68000031,799411.70001221,3568.63989258
950335.56000137,799343.41998291,3574.87011719
950337.43000031,799359.46002197,3573.5300293
950339.63000107,799378.10998535,3571.14990234
950340.34000015,799384.52001953,3571.54003906
950341.45000076,799393.55999756,3569.31005859
950344.34999847,799418.2800293,3566.27001953
950343.38000107,799403.05999756,3567.43994141
950335.18999863,799321.02001953,3575.89990234
950336.34999847,799330.72998047,3574.02001953
950337.77000046,799337.84997559,3571.98999023
950338.88999939,799347.96002197,3571.79003906
950340.72999954,799363.90997314,3569.87011719
950342,799371.41998291,3570.47998047
950343.86000061,799386.60998535,3566.43994141
950346.34000015,799408.54998779,3564.48999023
950334.54000092,799298.67999268,3572.51000977
950336.13999939,799314.5300293,3574.41992188
950340.63000107,799354.33001709,3570.22998047
950345.81000137,799396.23999023,3565.67993164
950336.15999985,799304.88000488,3572.12988281
950344.40999985,799380.34002686,3567.69995117
950348.68000031,799414.59002686,3563.37988281
950339.08000183,799324.61999512,3572.18994141
950341.13999939,799342.52001953,3569.02001953
950340.38000107,799331.59997559,3569.04003906
950334.56999969,799270.88000488,3565.20996094
950344.58000183,799366.73999023,3565.69995117
950348.38000107,799401.73999023,3563.52001953
950343.93000031,799359.15002441,3566.86010742
950339.95999908,799441.15997314,3570.38989258
950345.75,799374.16998291,3565.93994141
950343.18000031,799349.15002441,3567.37988281
950339.24000168,799311.05999756,3570.2199707
950340.04999924,799318.5300293,3570.84008789
950348.70000076,799390.16998291,3562.87988281
950336.65999985,799277.09997559,3566.22998047
950338.5,799294.65002441,3569.14990234
950343.18000031,799336.64001465,3566.63989258
950348.95000076,799383.01000977,3563.26000977
950351.72999954,799407.60998535,3560.57006836
950334.40999985,799241.90997314,3555
950340.56000137,799302.52001953,3568.36010742
950353.02000046,799413.90997314,3558.26000977
950335.68999863,799249.10998535,3558.06005859
950339.02999878,799282.9699707,3567.41992188
950343.45999908,799323.89001465,3566.97998047
950345.66999817,799343.40997314,3564.29003906
950346.75,799353.21002197,3563.7199707
950351.43999863,799395.72998047,3561.54003906
950338.11000061,799267.11999512,3561.40991211
950348.22000122,799361.29998779,3562.48999023
950349.09000015,799369.21002197,3562.0300293
950334.29999924,799222.16998291,3550.33007813
950337.74000168,799257.26000977,3559.22998047
950340.86000061,799288.86999512,3566.54003906
950343.68000031,799315.2800293,3566.75
950345.38999939,799330.61999512,3565.33007813
950343.52999878,799308.15997314,3566.37988281
950351.04000092,799375.76000977,3560.69995117
950336.56999969,799233.66998291,3554.64990234
950340.47999954,799273.10998535,3562.65991211
950354.40999985,799400.80999756,3558.11010742
950349.09000015,799348.23999023,3560.55004883
950353.15000153,799385.35998535,3559.2199707
950343.66999817,799297.36999512,3565.83007813
950348.11000061,799337.35998535,3562.66992188
950356.15000153,799408.89001465,3555.62988281
950333.18000031,799190.5300293,3544.86010742
950336.72000122,799211.90997314,3547.66992188
950342.91999817,799278.96002197,3563.38989258
950338.93999863,799226.75,3549.68994141
950340.02999878,799238.79998779,3552.64990234
950340.58000183,799245.38000488,3555.22998047
950347.70999908,799318.90002441,3562.7800293
950348.43999863,799325.67999268,3561.80004883
950351.58000183,799355.84997559,3560.32006836
950355.45000076,799392.32000732,3557.10009766
950357.97999954,799415.75,3553.85009766
950336.97999954,799197.67999268,3545.91992188
950337.81000137,799205.78997803,3545.69995117
